7, 9.800000e+00, 0.010261
7, 9.900000e+00, 0.004283
7, 10, 0.097685
7.100000e+00, 1.000000e-01, 0.054144
7.100000e+00, 2.000000e-01, 0.019975
7.100000e+00, 3.000000e-01, 0.032248
7.100000e+00, 4.000000e-01, 0.057406
7.100000e+00, 5.000000e-01, 0.048559
7.100000e+00, 6.000000e-01, 0.055317
7.100000e+00, 7.000000e-01, 0.023642
7.100000e+00, 8.000000e-01, 0.070857
7.100000e+00, 9.000000e-01, 0.043098
7.100000e+00, 1, 0.024769
7.100000e+00, 1.100000e+00, 0.023945
7.100000e+00, 1.200000e+00, 0.083638
7.100000e+00, 1.300000e+00, 0.035346
7.100000e+00, 1.400000e+00, 0.038864
7.100000e+00, 1.500000e+00, 0.018994
7.100000e+00, 1.600000e+00, 0.024963
7.100000e+00, 1.700000e+00, 0.045670
7.100000e+00, 1.800000e+00, 0.038078
7.100000e+00, 1.900000e+00, 0.061378
7.100000e+00, 2, 0.007744
7.100000e+00, 2.100000e+00, 0.081521
7.100000e+00, 2.200000e+00, 0.021684
7.100000e+00, 2.300000e+00, 0.037809
7.100000e+00, 2.400000e+00, 0.018915
7.100000e+00, 2.500000e+00, 0.049262
7.100000e+00, 2.600000e+00, 0.083782
7.100000e+00, 2.700000e+00, 0.052149
7.100000e+00, 2.800000e+00, 0.002034
7.100000e+00, 2.900000e+00, 0.067164
7.100000e+00, 3, 0.031053
7.100000e+00, 3.100000e+00, 0.060010
7.100000e+00, 3.200000e+00, 0.065303
7.100000e+00, 3.300000e+00, 0.046038
7.100000e+00, 3.400000e+00, 0.067057
7.100000e+00, 3.500000e+00, 0.052700
7.100000e+00, 3.600000e+00, 0.057463
7.100000e+00, 3.700000e+00, 0.068227
7.100000e+00, 3.800000e+00, 0.084737
7.100000e+00, 3.900000e+00, 0.035870
7.100000e+00, 4, 0.026951
7.100000e+00, 4.100000e+00, 0.082520
7.100000e+00, 4.200000e+00, 0.022051
7.100000e+00, 4.300000e+00, 0.054028
7.100000e+00, 4.400000e+00, 0.054299
7.100000e+00, 4.500000e+00, 0.040105
7.100000e+00, 4.600000e+00, 0.034108
7.100000e+00, 4.700000e+00, 0.077704
7.100000e+00, 4.800000e+00, 0.051841
7.100000e+00, 4.900000e+00, 0.016302
7.100000e+00, 5, 0.062738
7.100000e+00, 5.100000e+00, 0.026821
7.100000e+00, 5.200000e+00, 0.015605
7.100000e+00, 5.300000e+00, 0.009234
7.100000e+00, 5.400000e+00, 0.019692
7.100000e+00, 5.500000e+00, 0.098237
7.100000e+00, 5.600000e+00, 0.071918
7.100000e+00, 5.700000e+00, 0.018603
7.100000e+00, 5.800000e+00, 0.013982
7.100000e+00, 5.900000e+00, 0.031552
7.100000e+00, 6, 0.083986
7.100000e+00, 6.100000e+00, 0.077200
7.100000e+00, 6.200000e+00, 0.011911
7.100000e+00, 6.300000e+00, 0.050525
7.100000e+00, 6.400000e+00, 0.001244
7.100000e+00, 6.500000e+00, 0.010403
7.100000e+00, 6.600000e+00, 0.014046
7.100000e+00, 6.700000e+00, 0.037766
7.100000e+00, 6.800000e+00, 0.010569
7.100000e+00, 6.900000e+00, 0.070903
7.100000e+00, 7, 0.067210
7.100000e+00, 7.100000e+00, 0.056507
7.100000e+00, 7.200000e+00, 0.015053
7.100000e+00, 7.300000e+00, 0.053846
7.100000e+00, 7.400000e+00, 0.046020
7.100000e+00, 7.500000e+00, 0.043220
7.100000e+00, 7.600000e+00, 0.091453
7.100000e+00, 7.700000e+00, 0.093997
7.100000e+00, 7.800000e+00, 0.062792
7.100000e+00, 7.900000e+00, 0.076052
7.100000e+00, 8, 0.059151
7.100000e+00, 8.100000e+00, 0.089794
7.100000e+00, 8.200000e+00, 0.032168
7.100000e+00, 8.300000e+00, 0.058791
7.100000e+00, 8.400000e+00, 0.092010
7.100000e+00, 8.500000e+00, 0.064298
7.100000e+00, 8.600000e+00, 0.046837
7.100000e+00, 8.700000e+00, 0.047073
7.100000e+00, 8.800000e+00, 0.077309
7.100000e+00, 8.900000e+00, 0.078818
7.100000e+00, 9, 0.031352
7.100000e+00, 9.100000e+00, 0.016289
7.100000e+00, 9.200000e+00, 0.062992
7.100000e+00, 9.300000e+00, 0.047981
7.100000e+00, 9.400000e+00, 0.040204
7.100000e+00, 9.500000e+00, 0.051188
7.100000e+00, 9.600000e+00, 0.038183
7.100000e+00, 9.700000e+00, 0.080856
7.100000e+00, 9.800000e+00, 0.036224
7.100000e+00, 9.900000e+00, 0.099396
7.100000e+00, 10, 0.020023
7.200000e+00, 1.000000e-01, 0.002653
7.200000e+00, 2.000000e-01, 0.008645
7.200000e+00, 3.000000e-01, 0.012576
7.200000e+00, 4.000000e-01, 0.064104
7.200000e+00, 5.000000e-01, 0.049760
7.200000e+00, 6.000000e-01, 0.013947
7.200000e+00, 7.000000e-01, 0.037731
7.200000e+00, 8.000000e-01, 0.071507
7.200000e+00, 9.000000e-01, 0.052759
7.200000e+00, 1, 0.018579
7.200000e+00, 1.100000e+00, 0.042698
7.200000e+00, 1.200000e+00, 0.018044
7.200000e+00, 1.300000e+00, 0.047965
7.200000e+00, 1.400000e+00, 0.052098
7.200000e+00, 1.500000e+00, 0.092592
7.200000e+00, 1.600000e+00, 0.095657
7.200000e+00, 1.700000e+00, 0.072969
7.200000e+00, 1.800000e+00, 0.063665
7.200000e+00, 1.900000e+00, 0.026738
7.200000e+00, 2, 0.079760
7.200000e+00, 2.100000e+00, 0.067992
7.200000e+00, 2.200000e+00, 0.063647
7.200000e+00, 2.300000e+00, 0.091989
7.200000e+00, 2.400000e+00, 0.027537
7.200000e+00, 2.500000e+00, 0.073296
7.200000e+00, 2.600000e+00, 0.046090
7.200000e+00, 2.700000e+00, 0.097153
7.200000e+00, 2.800000e+00, 0.012802
7.200000e+00, 2.900000e+00, 0.016169
7.200000e+00, 3, 0.020594
7.200000e+00, 3.100000e+00, 0.005664
7.200000e+00, 3.200000e+00, 0.040785
7.200000e+00, 3.300000e+00, 0.083026
7.200000e+00, 3.400000e+00, 0.093293
7.200000e+00, 3.500000e+00, 0.026392
7.200000e+00, 3.600000e+00, 0.015225
7.200000e+00, 3.700000e+00, 0.056834
7.200000e+00, 3.800000e+00, 0.079995
7.200000e+00, 3.900000e+00, 0.021013
7.200000e+00, 4, 0.004087
7.200000e+00, 4.100000e+00, 0.029846
7.200000e+00, 4.200000e+00, 0.015181
7.200000e+00, 4.300000e+00, 0.051101
7.200000e+00, 4.400000e+00, 0.006586
7.200000e+00, 4.500000e+00, 0.018739
7.200000e+00, 4.600000e+00, 0.011911
7.200000e+00, 4.700000e+00, 0.058079
7.200000e+00, 4.800000e+00, 0.064519
7.200000e+00, 4.900000e+00, 0.065146
7.200000e+00, 5, 0.046068
7.200000e+00, 5.100000e+00, 0.078661
7.200000e+00, 5.200000e+00, 0.043267
7.200000e+00, 5.300000e+00, 0.034626
7.200000e+00, 5.400000e+00, 0.054159
7.200000e+00, 5.500000e+00, 0.099492
7.200000e+00, 5.600000e+00, 0.068671
7.200000e+00, 5.700000e+00, 0.098517
7.200000e+00, 5.800000e+00, 0.070366
7.200000e+00, 5.900000e+00, 0.073045
7.200000e+00, 6, 0.084483
7.200000e+00, 6.100000e+00, 0.077043
7.200000e+00, 6.200000e+00, 0.086424
7.200000e+00, 6.300000e+00, 0.079172
7.200000e+00, 6.400000e+00, 0.024353
7.200000e+00, 6.500000e+00, 0.022812
7.200000e+00, 6.600000e+00, 0.089969
7.200000e+00, 6.700000e+00, 0.015552
7.200000e+00, 6.800000e+00, 0.069539
7.200000e+00, 6.900000e+00, 0.006091
7.200000e+00, 7, 0.073233
7.200000e+00, 7.100000e+00, 0.032037
7.200000e+00, 7.200000e+00, 0.026024
7.200000e+00, 7.300000e+00, 0.064015
7.200000e+00, 7.400000e+00, 0.026385
7.200000e+00, 7.500000e+00, 0.092180
7.200000e+00, 7.600000e+00, 0.057139
7.200000e+00, 7.700000e+00, 0.083298
7.200000e+00, 7.800000e+00, 0.026556
7.200000e+00, 7.900000e+00, 0.042653
7.200000e+00, 8, 0.018157
7.200000e+00, 8.100000e+00, 0.096234
7.200000e+00, 8.200000e+00, 0.005616
7.200000e+00, 8.300000e+00, 0.037472
7.200000e+00, 8.400000e+00, 0.015637
7.200000e+00, 8.500000e+00, 0.018270
7.200000e+00, 8.600000e+00, 0.092048
7.200000e+00, 8.700000e+00, 0.095348
7.200000e+00, 8.800000e+00, 0.043158
7.200000e+00, 8.900000e+00, 0.046392
7.200000e+00, 9, 0.012648
7.200000e+00, 9.100000e+00, 0.013763
7.200000e+00, 9.200000e+00, 0.021080
7.200000e+00, 9.300000e+00, 0.084913
7.200000e+00, 9.400000e+00, 0.074761
7.200000e+00, 9.500000e+00, 0.075975
7.200000e+00, 9.600000e+00, 0.045886
7.200000e+00, 9.700000e+00, 0.062918
7.200000e+00, 9.800000e+00, 0.003347
7.200000e+00, 9.900000e+00, 0.029897
7.200000e+00, 10, 0.022383
7.300000e+00, 1.000000e-01, 0.042551
7.300000e+00, 2.000000e-01, 0.078700
7.300000e+00, 3.000000e-01, 0.061349
7.300000e+00, 4.000000e-01, 0.055841
7.300000e+00, 5.000000e-01, 0.029487
7.300000e+00, 6.000000e-01, 0.088271
7.300000e+00, 7.000000e-01, 0.007616
7.300000e+00, 8.000000e-01, 0.067977
7.300000e+00, 9.000000e-01, 0.033001
7.300000e+00, 1, 0.081873
7.300000e+00, 1.100000e+00, 0.058503
7.300000e+00, 1.200000e+00, 0.081465
7.300000e+00, 1.300000e+00, 0.052893
7.300000e+00, 1.400000e+00, 0.011792
7.300000e+00, 1.500000e+00, 0.056874
7.300000e+00, 1.600000e+00, 0.071813
7.300000e+00, 1.700000e+00, 0.084087
7.300000e+00, 1.800000e+00, 0.012622
7.300000e+00, 1.900000e+00, 0.025057
7.300000e+00, 2, 0.021282
7.300000e+00, 2.100000e+00, 0.085116
7.300000e+00, 2.200000e+00, 0.027619
7.300000e+00, 2.300000e+00, 0.062738
7.300000e+00, 2.400000e+00, 0.037656
7.300000e+00, 2.500000e+00, 0.008930
7.300000e+00, 2.600000e+00, 0.015489
7.300000e+00, 2.700000e+00, 0.006092
7.300000e+00, 2.800000e+00, 0.065481
7.300000e+00, 2.900000e+00, 0.028745
7.300000e+00, 3, 0.057801
7.300000e+00, 3.100000e+00, 0.069903
7.300000e+00, 3.200000e+00, 0.012813
7.300000e+00, 3.300000e+00, 0.044048
7.300000e+00, 3.400000e+00, 0.055212
7.300000e+00, 3.500000e+00, 0.060887
7.300000e+00, 3.600000e+00, 0.029278
7.300000e+00, 3.700000e+00, 0.082317
7.300000e+00, 3.800000e+00, 0.046585
7.300000e+00, 3.900000e+00, 0.060230
7.300000e+00, 4, 0.075480
7.300000e+00, 4.100000e+00, 0.061910
7.300000e+00, 4.200000e+00, 0.095641
7.300000e+00, 4.300000e+00, 0.006613
7.300000e+00, 4.400000e+00, 0.035795
7.300000e+00, 4.500000e+00, 0.054554
7.300000e+00, 4.600000e+00, 0.028985
7.300000e+00, 4.700000e+00, 0.055740
7.300000e+00, 4.800000e+00, 0.091458
7.300000e+00, 4.900000e+00, 0.034263
7.300000e+00, 5, 0.023044
7.300000e+00, 5.100000e+00, 0.020751
7.300000e+00, 5.200000e+00, 0.080324
7.300000e+00, 5.300000e+00, 0.054193
7.300000e+00, 5.400000e+00, 0.019408
7.300000e+00, 5.500000e+00, 0.007541
7.300000e+00, 5.600000e+00, 0.079805
7.300000e+00, 5.700000e+00, 0.083630
7.300000e+00, 5.800000e+00, 0.068368
7.300000e+00, 5.900000e+00, 0.052566
7.300000e+00, 6, 0.005329
7.300000e+00, 6.100000e+00, 0.062563
7.300000e+00, 6.200000e+00, 0.040839
7.300000e+00, 6.300000e+00, 0.069471
7.300000e+00, 6.400000e+00, 0.078224
7.300000e+00, 6.500000e+00, 0.010368
7.300000e+00, 6.600000e+00, 0.020707
7.300000e+00, 6.700000e+00, 0.034027
7.300000e+00, 6.800000e+00, 0.087837
7.300000e+00, 6.900000e+00, 0.095833
7.300000e+00, 7, 0.011395
7.300000e+00, 7.100000e+00, 0.047990
7.300000e+00, 7.200000e+00, 0.069982
7.300000e+00, 7.300000e+00, 0.056133
7.300000e+00, 7.400000e+00, 0.079554
7.300000e+00, 7.500000e+00, 0.031728
7.300000e+00, 7.600000e+00, 0.096333
7.300000e+00, 7.700000e+00, 0.064039
7.300000e+00, 7.800000e+00, 0.018466
7.300000e+00, 7.900000e+00, 0.028766
7.300000e+00, 8, 0.065892
7.300000e+00, 8.100000e+00, 0.075160
7.300000e+00, 8.200000e+00, 0.063525
7.300000e+00, 8.300000e+00, 0.092756
7.300000e+00, 8.400000e+00, 0.034721
7.300000e+00, 8.500000e+00, 0.036654
7.300000e+00, 8.600000e+00, 0.088142
7.300000e+00, 8.700000e+00, 0.015527
7.300000e+00, 8.800000e+00, 0.037529
7.300000e+00, 8.900000e+00, 0.041324
7.300000e+00, 9, 0.037729
7.300000e+00, 9.100000e+00, 0.041518
7.300000e+00, 9.200000e+00, 0.051019
7.300000e+00, 9.300000e+00, 0.018120
7.300000e+00, 9.400000e+00, 0.077928
7.300000e+00, 9.500000e+00, 0.038330
7.300000e+00, 9.600000e+00, 0.016068
7.300000e+00, 9.700000e+00, 0.023479
7.300000e+00, 9.800000e+00, 0.094199
7.300000e+00, 9.900000e+00, 0.080667
7.300000e+00, 10, 0.079755
7.400000e+00, 1.000000e-01, 0.078488
7.400000e+00, 2.000000e-01, 0.049425
7.400000e+00, 3.000000e-01, 0.063407
7.400000e+00, 4.000000e-01, 0.089944
7.400000e+00, 5.000000e-01, 0.080922
7.400000e+00, 6.000000e-01, 0.012333
7.400000e+00, 7.000000e-01, 0.080057
7.400000e+00, 8.000000e-01, 0.060370
7.400000e+00, 9.000000e-01, 0.024134
7.400000e+00, 1, 0.053269
7.400000e+00, 1.100000e+00, 0.044943
7.400000e+00, 1.200000e+00, 0.081153
7.400000e+00, 1.300000e+00, 0.086302
7.400000e+00, 1.400000e+00, 0.082340
7.400000e+00, 1.500000e+00, 0.020670
7.400000e+00, 1.600000e+00, 0.093215
7.400000e+00, 1.700000e+00, 0.013781
7.400000e+00, 1.800000e+00, 0.074374
7.400000e+00, 1.900000e+00, 0.074936
7.400000e+00, 2, 0.015697
7.400000e+00, 2.100000e+00, 0.075356
7.400000e+00, 2.200000e+00, 0.069771
7.400000e+00, 2.300000e+00, 0.050971
7.400000e+00, 2.400000e+00, 0.004466
7.400000e+00, 2.500000e+00, 0.013846
7.400000e+00, 2.600000e+00, 0.041950
7.400000e+00, 2.700000e+00, 0.024991
7.400000e+00, 2.800000e+00, 0.087080
7.400000e+00, 2.900000e+00, 0.044219
7.400000e+00, 3, 0.080835
7.400000e+00, 3.100000e+00, 0.013801
7.400000e+00, 3.200000e+00, 0.086387
7.400000e+00, 3.300000e+00, 0.006188
7.400000e+00, 3.400000e+00, 0.069139
7.400000e+00, 3.500000e+00, 0.047693
7.400000e+00, 3.600000e+00, 0.090992
7.400000e+00, 3.700000e+00, 0.043637
7.400000e+00, 3.800000e+00, 0.049356
7.400000e+00, 3.900000e+00, 0.043377
7.400000e+00, 4, 0.024551
7.400000e+00, 4.100000e+00, 0.090017
7.400000e+00, 4.200000e+00, 0.080106
7.400000e+00, 4.300000e+00, 0.060039
7.400000e+00, 4.400000e+00, 0.017341
7.400000e+00, 4.500000e+00, 0.092448
7.400000e+00, 4.600000e+00, 0.030155
7.400000e+00, 4.700000e+00, 0.075653
7.400000e+00, 4.800000e+00, 0.070333
7.400000e+00, 4.900000e+00, 0.029302
7.400000e+00, 5, 0.029387
7.400000e+00, 5.100000e+00, 0.098897
7.400000e+00, 5.200000e+00, 0.088276
7.400000e+00, 5.300000e+00, 0.033461
7.400000e+00, 5.400000e+00, 0.026467
7.400000e+00, 5.500000e+00, 0.049443
7.400000e+00, 5.600000e+00, 0.029837
7.400000e+00, 5.700000e+00, 0.054369
7.400000e+00, 5.800000e+00, 0.093172
7.400000e+00, 5.900000e+00, 0.069560
7.400000e+00, 6, 0.047166
7.400000e+00, 6.100000e+00, 0.065023
7.400000e+00, 6.200000e+00, 0.082837
7.400000e+00, 6.300000e+00, 0.074149
7.400000e+00, 6.400000e+00, 0.020835
7.400000e+00, 6.500000e+00, 0.052525
7.400000e+00, 6.600000e+00, 0.007391
7.400000e+00, 6.700000e+00, 0.002901
7.400000e+00, 6.800000e+00, 0.098208
7.400000e+00, 6.900000e+00, 0.047627
7.400000e+00, 7, 0.041852
7.400000e+00, 7.100000e+00, 0.095818
7.400000e+00, 7.200000e+00, 0.058242
7.400000e+00, 7.300000e+00, 0.096171
7.400000e+00, 7.400000e+00, 0.005943
7.400000e+00, 7.500000e+00, 0.032991
7.400000e+00, 7.600000e+00, 0.037581
7.400000e+00, 7.700000e+00, 0.068188
7.400000e+00, 7.800000e+00, 0.039046
7.400000e+00, 7.900000e+00, 0.000457
7.400000e+00, 8, 0.042913
7.400000e+00, 8.100000e+00, 0.046563
7.400000e+00, 8.200000e+00, 0.069145
7.400000e+00, 8.300000e+00, 0.086640
7.400000e+00, 8.400000e+00, 0.083921
7.400000e+00, 8.500000e+00, 0.026522
7.400000e+00, 8.600000e+00, 0.042048
7.400000e+00, 8.700000e+00, 0.009500
7.400000e+00, 8.800000e+00, 0.022742
7.400000e+00, 8.900000e+00, 0.084273
7.400000e+00, 9, 0.046268
7.400000e+00, 9.100000e+00, 0.001529
7.400000e+00, 9.200000e+00, 0.095005
7.400000e+00, 9.300000e+00, 0.025600
7.400000e+00, 9.400000e+00, 0.004615
7.400000e+00, 9.500000e+00, 0.026875
7.400000e+00, 9.600000e+00, 0.061760
7.400000e+00, 9.700000e+00, 0.001691
7.400000e+00, 9.800000e+00, 0.044035
7.400000e+00, 9.900000e+00, 0.018231
7.400000e+00, 10, 0.036357
7.500000e+00, 1.000000e-01, 0.050640
7.500000e+00, 2.000000e-01, 0.055900
7.500000e+00, 3.000000e-01, 0.039143
7.500000e+00, 4.000000e-01, 0.002048
7.500000e+00, 5.000000e-01, 0.072468
7.500000e+00, 6.000000e-01, 0.016586
7.500000e+00, 7.000000e-01, 0.022770
7.500000e+00, 8.000000e-01, 0.043992
7.500000e+00, 9.000000e-01, 0.085105
7.500000e+00, 1, 0.066863
7.500000e+00, 1.100000e+00, 0.034883
7.500000e+00, 1.200000e+00, 0.071308
7.500000e+00, 1.300000e+00, 0.050954
7.500000e+00, 1.400000e+00, 0.086525
7.500000e+00, 1.500000e+00, 0.020068
7.500000e+00, 1.600000e+00, 0.023891
7.500000e+00, 1.700000e+00, 0.095346
7.500000e+00, 1.800000e+00, 0.078430
7.500000e+00, 1.900000e+00, 0.034439
7.500000e+00, 2, 0.036409
7.500000e+00, 2.100000e+00, 0.066102
7.500000e+00, 2.200000e+00, 0.030612
7.500000e+00, 2.300000e+00, 0.068038
7.500000e+00, 2.400000e+00, 0.011782
7.500000e+00, 2.500000e+00, 0.069268
7.500000e+00, 2.600000e+00, 0.067921
7.500000e+00, 2.700000e+00, 0.021667
7.500000e+00, 2.800000e+00, 0.095147
7.500000e+00, 2.900000e+00, 0.059279
7.500000e+00, 3, 0.062936
7.500000e+00, 3.100000e+00, 0.063880
7.500000e+00, 3.200000e+00, 0.009180
7.500000e+00, 3.300000e+00, 0.076383
7.500000e+00, 3.400000e+00, 0.048364
7.500000e+00, 3.500000e+00, 0.069386
7.500000e+00, 3.600000e+00, 0.076814
7.500000e+00, 3.700000e+00, 0.089745
7.500000e+00, 3.800000e+00, 0.017274
7.500000e+00, 3.900000e+00, 0.075567
7.500000e+00, 4, 0.090473
7.500000e+00, 4.100000e+00, 0.088566
7.500000e+00, 4.200000e+00, 0.021612
7.500000e+00, 4.300000e+00, 0.061550
7.500000e+00, 4.400000e+00, 0.013560
7.500000e+00, 4.500000e+00, 0.056290
7.500000e+00, 4.600000e+00, 0.082540
7.500000e+00, 4.700000e+00, 0.029608
7.500000e+00, 4.800000e+00, 0.026348
7.500000e+00, 4.900000e+00, 0.067790
7.500000e+00, 5, 0.088187
7.500000e+00, 5.100000e+00, 0.043957
7.500000e+00, 5.200000e+00, 0.090914
7.500000e+00, 5.300000e+00, 0.062069
7.500000e+00, 5.400000e+00, 0.096287
7.500000e+00, 5.500000e+00, 0.098146
7.500000e+00, 5.600000e+00, 0.078546
7.500000e+00, 5.700000e+00, 0.080670
7.500000e+00, 5.800000e+00, 0.028400
7.500000e+00, 5.900000e+00, 0.045713
7.500000e+00, 6, 0.091675
7.500000e+00, 6.100000e+00, 0.073464
7.500000e+00, 6.200000e+00, 0.037109
7.500000e+00, 6.300000e+00, 0.096059
7.500000e+00, 6.400000e+00, 0.069838
7.500000e+00, 6.500000e+00, 0.000593
7.500000e+00, 6.600000e+00, 0.078627
7.500000e+00, 6.700000e+00, 0.070425
7.500000e+00, 6.800000e+00, 0.093862
7.500000e+00, 6.900000e+00, 0.022509
7.500000e+00, 7, 0.068092
7.500000e+00, 7.100000e+00, 0.008572
7.500000e+00, 7.200000e+00, 0.086702
7.500000e+00, 7.300000e+00, 0.076286
7.500000e+00, 7.400000e+00, 0.015578
7.500000e+00, 7.500000e+00, 0.041116
7.500000e+00, 7.600000e+00, 0.051969
7.500000e+00, 7.700000e+00, 0.063869
7.500000e+00, 7.800000e+00, 0.075000
7.500000e+00, 7.900000e+00, 0.052479
7.500000e+00, 8, 0.097256
7.500000e+00, 8.100000e+00, 0.000057
7.500000e+00, 8.200000e+00, 0.016876
7.500000e+00, 8.300000e+00, 0.079199
7.500000e+00, 8.400000e+00, 0.032841
7.500000e+00, 8.500000e+00, 0.024325
7.500000e+00, 8.600000e+00, 0.076253
7.500000e+00, 8.700000e+00, 0.021076
7.500000e+00, 8.800000e+00, 0.027128
7.500000e+00, 8.900000e+00, 0.038511
7.500000e+00, 9, 0.094171
7.500000e+00, 9.100000e+00, 0.032600
7.500000e+00, 9.200000e+00, 0.083440
7.500000e+00, 9.300000e+00, 0.001255
7.500000e+00, 9.400000e+00, 0.086675
7.500000e+00, 9.500000e+00, 0.090341
7.500000e+00, 9.600000e+00, 0.041630
7.500000e+00, 9.700000e+00, 0.033959
7.500000e+00, 9.800000e+00, 0.018147
7.500000e+00, 9.900000e+00, 0.047204
7.500000e+00, 10, 0.016633
7.600000e+00, 1.000000e-01, 0.061538
7.600000e+00, 2.000000e-01, 0.039369
7.600000e+00, 3.000000e-01, 0.018570
7.600000e+00, 4.000000e-01, 0.035829
7.600000e+00, 5.000000e-01, 0.017076
7.600000e+00, 6.000000e-01, 0.041652
7.600000e+00, 7.000000e-01, 0.019274
7.600000e+00, 8.000000e-01, 0.014519
7.600000e+00, 9.000000e-01, 0.091404
7.600000e+00, 1, 0.014561
7.600000e+00, 1.100000e+00, 0.083626
7.600000e+00, 1.200000e+00, 0.094723
7.600000e+00, 1.300000e+00, 0.094647
7.600000e+00, 1.400000e+00, 0.083807
7.600000e+00, 1.500000e+00, 0.031609
7.600000e+00, 1.600000e+00, 0.063572
7.600000e+00, 1.700000e+00, 0.068010
7.600000e+00, 1.800000e+00, 0.001118
7.600000e+00, 1.900000e+00, 0.072160
7.600000e+00, 2, 0.055855
7.600000e+00, 2.100000e+00, 0.033023
7.600000e+00, 2.200000e+00, 0.077821
7.600000e+00, 2.300000e+00, 0.007900
7.600000e+00, 2.400000e+00, 0.049206
7.600000e+00, 2.500000e+00, 0.071911
7.600000e+00, 2.600000e+00, 0.034460
7.600000e+00, 2.700000e+00, 0.027918
7.600000e+00, 2.800000e+00, 0.095695
7.600000e+00, 2.900000e+00, 0.010024
7.600000e+00, 3, 0.042765
7.600000e+00, 3.100000e+00, 0.069914
7.600000e+00, 3.200000e+00, 0.072520
7.600000e+00, 3.300000e+00, 0.093893
7.600000e+00, 3.400000e+00, 0.017228
7.600000e+00, 3.500000e+00, 0.042535
7.600000e+00, 3.600000e+00, 0.006475
7.600000e+00, 3.700000e+00, 0.031358
7.600000e+00, 3.800000e+00, 0.013225
7.600000e+00, 3.900000e+00, 0.050533
7.600000e+00, 4, 0.046039
7.600000e+00, 4.100000e+00, 0.007843
7.600000e+00, 4.200000e+00, 0.074928
7.600000e+00, 4.300000e+00, 0.038422
7.600000e+00, 4.400000e+00, 0.047103
7.600000e+00, 4.500000e+00, 0.096573
7.600000e+00, 4.600000e+00, 0.049887
7.600000e+00, 4.700000e+00, 0.029044
7.600000e+00, 4.800000e+00, 0.009339
7.600000e+00, 4.900000e+00, 0.042502
7.600000e+00, 5, 0.021649
7.600000e+00, 5.100000e+00, 0.020956
7.600000e+00, 5.200000e+00, 0.088516
7.600000e+00, 5.300000e+00, 0.044981
7.600000e+00, 5.400000e+00, 0.025456
7.600000e+00, 5.500000e+00, 0.057070
7.600000e+00, 5.600000e+00, 0.029734
7.600000e+00, 5.700000e+00, 0.037258
7.600000e+00, 5.800000e+00, 0.045164
7.600000e+00, 5.900000e+00, 0.038152
7.600000e+00, 6, 0.027898
7.600000e+00, 6.100000e+00, 0.021823
7.600000e+00, 6.200000e+00, 0.086466
7.600000e+00, 6.300000e+00, 0.057912
7.600000e+00, 6.400000e+00, 0.008766
7.600000e+00, 6.500000e+00, 0.021070
7.600000e+00, 6.600000e+00, 0.087507
7.600000e+00, 6.700000e+00, 0.073082
7.600000e+00, 6.800000e+00, 0.049997
7.600000e+00, 6.900000e+00, 0.049772
7.600000e+00, 7, 0.044948
7.600000e+00, 7.100000e+00, 0.093752
7.600000e+00, 7.200000e+00, 0.034623
7.600000e+00, 7.300000e+00, 0.006081
7.600000e+00, 7.400000e+00, 0.063673
7.600000e+00, 7.500000e+00, 0.000706
7.600000e+00, 7.600000e+00, 0.019174
7.600000e+00, 7.700000e+00, 0.009408
7.600000e+00, 7.800000e+00, 0.092775
7.600000e+00, 7.900000e+00, 0.087213
7.600000e+00, 8, 0.042197
7.600000e+00, 8.100000e+00, 0.031436
7.600000e+00, 8.200000e+00, 0.053468
7.600000e+00, 8.300000e+00, 0.046073
7.600000e+00, 8.400000e+00, 0.047846
7.600000e+00, 8.500000e+00, 0.099665
7.600000e+00, 8.600000e+00, 0.042298
7.600000e+00, 8.700000e+00, 0.041126
7.600000e+00, 8.800000e+00, 0.057972
7.600000e+00, 8.900000e+00, 0.088017
7.600000e+00, 9, 0.012517
7.600000e+00, 9.100000e+00, 0.033767
7.600000e+00, 9.200000e+00, 0.046876
7.600000e+00, 9.300000e+00, 0.064824
7.600000e+00, 9.400000e+00, 0.014386
7.600000e+00, 9.500000e+00, 0.095654
7.600000e+00, 9.600000e+00, 0.080708
7.600000e+00, 9.700000e+00, 0.036952
7.600000e+00, 9.800000e+00, 0.086705
7.600000e+00, 9.900000e+00, 0.051182
7.600000e+00, 10, 0.048042
7.700000e+00, 1.000000e-01, 0.046386
7.700000e+00, 2.000000e-01, 0.098512
7.700000e+00, 3.000000e-01, 0.017573
7.700000e+00, 4.000000e-01, 0.014533
7.700000e+00, 5.000000e-01, 0.030899
7.700000e+00, 6.000000e-01, 0.049848
7.700000e+00, 7.000000e-01, 0.026007
7.700000e+00, 8.000000e-01, 0.035416
7.700000e+00, 9.000000e-01, 0.037877
7.700000e+00, 1, 0.084780
7.700000e+00, 1.100000e+00, 0.083484
7.700000e+00, 1.200000e+00, 0.076201
7.700000e+00, 1.300000e+00, 0.094470
7.700000e+00, 1.400000e+00, 0.061763
7.700000e+00, 1.500000e+00, 0.088469
7.700000e+00, 1.600000e+00, 0.061306
7.700000e+00, 1.700000e+00, 0.053861
7.700000e+00, 1.800000e+00, 0.080855
7.700000e+00, 1.900000e+00, 0.076916
7.700000e+00, 2, 0.030813
7.700000e+00, 2.100000e+00, 0.047396
7.700000e+00, 2.200000e+00, 0.081897
7.700000e+00, 2.300000e+00, 0.006462
7.700000e+00, 2.400000e+00, 0.030650
7.700000e+00, 2.500000e+00, 0.086567
7.700000e+00, 2.600000e+00, 0.015957
7.700000e+00, 2.700000e+00, 0.082596
7.700000e+00, 2.800000e+00, 0.054806
7.700000e+00, 2.900000e+00, 0.073953
7.700000e+00, 3, 0.035889
7.700000e+00, 3.100000e+00, 0.079675
7.700000e+00, 3.200000e+00, 0.007805
7.700000e+00, 3.300000e+00, 0.001369
7.700000e+00, 3.400000e+00, 0.037537
7.700000e+00, 3.500000e+00, 0.020018
7.700000e+00, 3.600000e+00, 0.099411
7.700000e+00, 3.700000e+00, 0.072073
7.700000e+00, 3.800000e+00, 0.084797
7.700000e+00, 3.900000e+00, 0.083749
7.700000e+00, 4, 0.072214
7.700000e+00, 4.100000e+00, 0.062867
7.700000e+00, 4.200000e+00, 0.008299
7.700000e+00, 4.300000e+00, 0.054486
7.700000e+00, 4.400000e+00, 0.066709
7.700000e+00, 4.500000e+00, 0.023265
7.700000e+00, 4.600000e+00, 0.053789
7.700000e+00, 4.700000e+00, 0.088049
7.700000e+00, 4.800000e+00, 0.056941
7.700000e+00, 4.900000e+00, 0.088103
7.700000e+00, 5, 0.052407
7.700000e+00, 5.100000e+00, 0.091738
7.700000e+00, 5.200000e+00, 0.066915
7.700000e+00, 5.300000e+00, 0.071794
7.700000e+00, 5.400000e+00, 0.006151
7.700000e+00, 5.500000e+00, 0.035169
7.700000e+00, 5.600000e+00, 0.093867
7.700000e+00, 5.700000e+00, 0.042524
7.700000e+00, 5.800000e+00, 0.087657
7.700000e+00, 5.900000e+00, 0.088080
7.700000e+00, 6, 0.080296
7.700000e+00, 6.100000e+00, 0.018096
7.700000e+00, 6.200000e+00, 0.028290
7.700000e+00, 6.300000e+00, 0.096444
7.700000e+00, 6.400000e+00, 0.082662
7.700000e+00, 6.500000e+00, 0.034549
7.700000e+00, 6.600000e+00, 0.053963
7.700000e+00, 6.700000e+00, 0.008792
7.700000e+00, 6.800000e+00, 0.057566
7.700000e+00, 6.900000e+00, 0.040335
7.700000e+00, 7, 0.035528
7.700000e+00, 7.100000e+00, 0.078276
7.700000e+00, 7.200000e+00, 0.077930
7.700000e+00, 7.300000e+00, 0.060798
7.700000e+00, 7.400000e+00, 0.054898
7.700000e+00, 7.500000e+00, 0.022094
7.700000e+00, 7.600000e+00, 0.073320
7.700000e+00, 7.700000e+00, 0.013466
7.700000e+00, 7.800000e+00, 0.093453
7.700000e+00, 7.900000e+00, 0.022169
7.700000e+00, 8, 0.022467
7.700000e+00, 8.100000e+00, 0.015065
7.700000e+00, 8.200000e+00, 0.097860
7.700000e+00, 8.300000e+00, 0.094637
7.700000e+00, 8.400000e+00, 0.062638
7.700000e+00, 8.500000e+00, 0.091769
7.700000e+00, 8.600000e+00, 0.019765
7.700000e+00, 8.700000e+00, 0.007607
7.700000e+00, 8.800000e+00, 0.083438
7.700000e+00, 8.900000e+00, 0.074374
7.700000e+00, 9, 0.015550
7.700000e+00, 9.100000e+00, 0.089808
7.700000e+00, 9.200000e+00, 0.067578
7.700000e+00, 9.300000e+00, 0.067822
7.700000e+00, 9.400000e+00, 0.035686
7.700000e+00, 9.500000e+00, 0.081518
7.700000e+00, 9.600000e+00, 0.060150
7.700000e+00, 9.700000e+00, 0.080696
7.700000e+00, 9.800000e+00, 0.058165
7.700000e+00, 9.900000e+00, 0.092843
7.700000e+00, 10, 0.047446
7.800000e+00, 1.000000e-01, 0.060986
7.800000e+00, 2.000000e-01, 0.070414
7.800000e+00, 3.000000e-01, 0.081312
7.800000e+00, 4.000000e-01, 0.043242
7.800000e+00, 5.000000e-01, 0.068815
7.800000e+00, 6.000000e-01, 0.084166
7.800000e+00, 7.000000e-01, 0.007919
7.800000e+00, 8.000000e-01, 0.021120
7.800000e+00, 9.000000e-01, 0.038154
7.800000e+00, 1, 0.042025
7.800000e+00, 1.100000e+00, 0.092799
7.800000e+00, 1.200000e+00, 0.065017
7.800000e+00, 1.300000e+00, 0.070191
7.800000e+00, 1.400000e+00, 0.031770
7.800000e+00, 1.500000e+00, 0.071996
7.800000e+00, 1.600000e+00, 0.058622
7.800000e+00, 1.700000e+00, 0.093863
7.800000e+00, 1.800000e+00, 0.094939
7.800000e+00, 1.900000e+00, 0.099390
7.800000e+00, 2, 0.046751
7.800000e+00, 2.100000e+00, 0.005514
7.800000e+00, 2.200000e+00, 0.040099
7.800000e+00, 2.300000e+00, 0.015203
7.800000e+00, 2.400000e+00, 0.022020
7.800000e+00, 2.500000e+00, 0.032399
7.800000e+00, 2.600000e+00, 0.043580
7.800000e+00, 2.700000e+00, 0.033573
7.800000e+00, 2.800000e+00, 0.011432
7.800000e+00, 2.900000e+00, 0.012958
7.800000e+00, 3, 0.091659
7.800000e+00, 3.100000e+00, 0.064695
7.800000e+00, 3.200000e+00, 0.027471
7.800000e+00, 3.300000e+00, 0.005000
7.800000e+00, 3.400000e+00, 0.078240
7.800000e+00, 3.500000e+00, 0.088762
7.800000e+00, 3.600000e+00, 0.063155
7.800000e+00, 3.700000e+00, 0.022929
7.800000e+00, 3.800000e+00, 0.048026
7.800000e+00, 3.900000e+00, 0.002664
7.800000e+00, 4, 0.005884
7.800000e+00, 4.100000e+00, 0.092655
7.800000e+00, 4.200000e+00, 0.008376
7.800000e+00, 4.300000e+00, 0.041309
7.800000e+00, 4.400000e+00, 0.023645
7.800000e+00, 4.500000e+00, 0.032063
7.800000e+00, 4.600000e+00, 0.051580
7.800000e+00, 4.700000e+00, 0.094882
7.800000e+00, 4.800000e+00, 0.055901
7.800000e+00, 4.900000e+00, 0.044867
7.800000e+00, 5, 0.090399
7.800000e+00, 5.100000e+00, 0.010880
7.800000e+00, 5.200000e+00, 0.071287
7.800000e+00, 5.300000e+00, 0.059641
7.800000e+00, 5.400000e+00, 0.032734
7.800000e+00, 5.500000e+00, 0.035472
7.800000e+00, 5.600000e+00, 0.012073
7.800000e+00, 5.700000e+00, 0.071478
7.800000e+00, 5.800000e+00, 0.019783
7.800000e+00, 5.900000e+00, 0.065445
7.800000e+00, 6, 0.008797
7.800000e+00, 6.100000e+00, 0.043652
7.800000e+00, 6.200000e+00, 0.036846
7.800000e+00, 6.300000e+00, 0.099791
7.800000e+00, 6.400000e+00, 0.043191
7.800000e+00, 6.500000e+00, 0.003509
7.800000e+00, 6.600000e+00, 0.054801
7.800000e+00, 6.700000e+00, 0.001165
7.800000e+00, 6.800000e+00, 0.050669
7.800000e+00, 6.900000e+00, 0.075716
7.800000e+00, 7, 0.058861
7.800000e+00, 7.100000e+00, 0.040118
7.800000e+00, 7.200000e+00, 0.017801
7.800000e+00, 7.300000e+00, 0.018471
7.800000e+00, 7.400000e+00, 0.087428
7.800000e+00, 7.500000e+00, 0.018649
7.800000e+00, 7.600000e+00, 0.042310
7.800000e+00, 7.700000e+00, 0.031978
7.800000e+00, 7.800000e+00, 0.045897
7.800000e+00, 7.900000e+00, 0.039289
7.800000e+00, 8, 0.080789
7.800000e+00, 8.100000e+00, 0.098434
7.800000e+00, 8.200000e+00, 0.031948
7.800000e+00, 8.300000e+00, 0.049992
7.800000e+00, 8.400000e+00, 0.037341
7.800000e+00, 8.500000e+00, 0.076719
7.800000e+00, 8.600000e+00, 0.088734
7.800000e+00, 8.700000e+00, 0.011973
7.800000e+00, 8.800000e+00, 0.046592
7.800000e+00, 8.900000e+00, 0.075048
7.800000e+00, 9, 0.010703
7.800000e+00, 9.100000e+00, 0.027558
7.800000e+00, 9.200000e+00, 0.043287
7.800000e+00, 9.300000e+00, 0.031983
7.800000e+00, 9.400000e+00, 0.082108
7.800000e+00, 9.500000e+00, 0.042182
7.800000e+00, 9.600000e+00, 0.064831
7.800000e+00, 9.700000e+00, 0.052937
7.800000e+00, 9.800000e+00, 0.005247
7.800000e+00, 9.900000e+00, 0.055355
7.800000e+00, 10, 0.015689
7.900000e+00, 1.000000e-01, 0.068791
7.900000e+00, 2.000000e-01, 0.027173
7.900000e+00, 3.000000e-01, 0.077763
7.900000e+00, 4.000000e-01, 0.063996
7.900000e+00, 5.000000e-01, 0.035326
7.900000e+00, 6.000000e-01, 0.094644
7.900000e+00, 7.000000e-01, 0.075221
7.900000e+00, 8.000000e-01, 0.020623
7.900000e+00, 9.000000e-01, 0.052455
7.900000e+00, 1, 0.004545
7.900000e+00, 1.100000e+00, 0.049783
7.900000e+00, 1.200000e+00, 0.058056
7.900000e+00, 1.300000e+00, 0.019831
7.900000e+00, 1.400000e+00, 0.099883
7.900000e+00, 1.500000e+00, 0.052584
7.900000e+00, 1.600000e+00, 0.088489
7.900000e+00, 1.700000e+00, 0.042031
7.900000e+00, 1.800000e+00, 0.046298
7.900000e+00, 1.900000e+00, 0.031830
7.900000e+00, 2, 0.052179
7.900000e+00, 2.100000e+00, 0.024893
7.900000e+00, 2.200000e+00, 0.061966
7.900000e+00, 2.300000e+00, 0.057863
7.900000e+00, 2.400000e+00, 0.003274
7.900000e+00, 2.500000e+00, 0.049927
7.900000e+00, 2.600000e+00, 0.019609
7.900000e+00, 2.700000e+00, 0.022157
7.900000e+00, 2.800000e+00, 0.079865
7.900000e+00, 2.900000e+00, 0.077969
7.900000e+00, 3, 0.015346
7.900000e+00, 3.100000e+00, 0.094722
7.900000e+00, 3.200000e+00, 0.096943
7.900000e+00, 3.300000e+00, 0.008175
7.900000e+00, 3.400000e+00, 0.023696
7.900000e+00, 3.500000e+00, 0.072862
7.900000e+00, 3.600000e+00, 0.098630
7.900000e+00, 3.700000e+00, 0.016724
7.900000e+00, 3.800000e+00, 0.092175
7.900000e+00, 3.900000e+00, 0.077951
7.900000e+00, 4, 0.001179
7.900000e+00, 4.100000e+00, 0.071022
7.900000e+00, 4.200000e+00, 0.036783
7.900000e+00, 4.300000e+00, 0.000831
7.900000e+00, 4.400000e+00, 0.019428
7.900000e+00, 4.500000e+00, 0.003937
7.900000e+00, 4.600000e+00, 0.017981
7.900000e+00, 4.700000e+00, 0.051426
7.900000e+00, 4.800000e+00, 0.060890
7.900000e+00, 4.900000e+00, 0.074272
7.900000e+00, 5, 0.085621
7.900000e+00, 5.100000e+00, 0.049012
7.900000e+00, 5.200000e+00, 0.074744
7.900000e+00, 5.300000e+00, 0.065427
7.900000e+00, 5.400000e+00, 0.071555
7.900000e+00, 5.500000e+00, 0.043423
7.900000e+00, 5.600000e+00, 0.085813
7.900000e+00, 5.700000e+00, 0.015712
7.900000e+00, 5.800000e+00, 0.057238
7.900000e+00, 5.900000e+00, 0.049508
7.900000e+00, 6, 0.033007
7.900000e+00, 6.100000e+00, 0.009251
7.900000e+00, 6.200000e+00, 0.087988
7.900000e+00, 6.300000e+00, 0.027012
7.900000e+00, 6.400000e+00, 0.030858
7.900000e+00, 6.500000e+00, 0.095934
7.900000e+00, 6.600000e+00, 0.070235
7.900000e+00, 6.700000e+00, 0.070291
7.900000e+00, 6.800000e+00, 0.094879
7.900000e+00, 6.900000e+00, 0.058618
7.900000e+00, 7, 0.045025
7.900000e+00, 7.100000e+00, 0.004783
7.900000e+00, 7.200000e+00, 0.052857
7.900000e+00, 7.300000e+00, 0.049447
7.900000e+00, 7.400000e+00, 0.020651
7.900000e+00, 7.500000e+00, 0.019629
7.900000e+00, 7.600000e+00, 0.050583
7.900000e+00, 7.700000e+00, 0.022741
7.900000e+00, 7.800000e+00, 0.031897
7.900000e+00, 7.900000e+00, 0.062288
7.900000e+00, 8, 0.061270
7.900000e+00, 8.100000e+00, 0.088801
7.900000e+00, 8.200000e+00, 0.009678
7.900000e+00, 8.300000e+00, 0.001990
7.900000e+00, 8.400000e+00, 0.074558
7.900000e+00, 8.500000e+00, 0.064757
7.900000e+00, 8.600000e+00, 0.035496
7.900000e+00, 8.700000e+00, 0.017782
7.900000e+00, 8.800000e+00, 0.034703
7.900000e+00, 8.900000e+00, 0.052759
7.900000e+00, 9, 0.081344
7.900000e+00, 9.100000e+00, 0.032297
7.900000e+00, 9.200000e+00, 0.047060
7.900000e+00, 9.300000e+00, 0.092841
7.900000e+00, 9.400000e+00, 0.016616
7.900000e+00, 9.500000e+00, 0.051886
7.900000e+00, 9.600000e+00, 0.091832
7.900000e+00, 9.700000e+00, 0.018408
7.900000e+00, 9.800000e+00, 0.088710
7.900000e+00, 9.900000e+00, 0.051989
7.900000e+00, 10, 0.031875
8, 1.000000e-01, 0.024776
8, 2.000000e-01, 0.000422
8, 3.000000e-01, 0.060614
8, 4.000000e-01, 0.000177
8, 5.000000e-01, 0.013620
8, 6.000000e-01, 0.076050
8, 7.000000e-01, 0.022148
8, 8.000000e-01, 0.069822
8, 9.000000e-01, 0.021750
8, 1, 0.003935
8, 1.100000e+00, 0.069977
8, 1.200000e+00, 0.028803
8, 1.300000e+00, 0.001144
8, 1.400000e+00, 0.057902
8, 1.500000e+00, 0.006303
8, 1.600000e+00, 0.060021
8, 1.700000e+00, 0.063399
8, 1.800000e+00, 0.073160
8, 1.900000e+00, 0.047394
8, 2, 0.005295
8, 2.100000e+00, 0.074124
8, 2.200000e+00, 0.022220
8, 2.300000e+00, 0.050115
8, 2.400000e+00, 0.001637
8, 2.500000e+00, 0.066558
8, 2.600000e+00, 0.086033
8, 2.700000e+00, 0.016612
8, 2.800000e+00, 0.077274
8, 2.900000e+00, 0.083091
8, 3, 0.032442
8, 3.100000e+00, 0.087835
8, 3.200000e+00, 0.085472
8, 3.300000e+00, 0.040981
8, 3.400000e+00, 0.077298
8, 3.500000e+00, 0.072315
8, 3.600000e+00, 0.094441
8, 3.700000e+00, 0.016356
8, 3.800000e+00, 0.012531
8, 3.900000e+00, 0.033097
8, 4, 0.040026
8, 4.100000e+00, 0.045367
8, 4.200000e+00, 0.094442
8, 4.300000e+00, 0.063605
8, 4.400000e+00, 0.068903
8, 4.500000e+00, 0.007371
8, 4.600000e+00, 0.067384
8, 4.700000e+00, 0.014850
8, 4.800000e+00, 0.016282
8, 4.900000e+00, 0.000998
8, 5, 0.094249
8, 5.100000e+00, 0.005379
8, 5.200000e+00, 0.025461
8, 5.300000e+00, 0.095445
8, 5.400000e+00, 0.004961
8, 5.500000e+00, 0.039679
8, 5.600000e+00, 0.071398
8, 5.700000e+00, 0.053893
8, 5.800000e+00, 0.040104
8, 5.900000e+00, 0.083466
8, 6, 0.024560
8, 6.100000e+00, 0.076576
8, 6.200000e+00, 0.042478
8, 6.300000e+00, 0.057772
8, 6.400000e+00, 0.083774
8, 6.500000e+00, 0.068621
8, 6.600000e+00, 0.086277
8, 6.700000e+00, 0.050077
8, 6.800000e+00, 0.003829
8, 6.900000e+00, 0.042603
8, 7, 0.070276
8, 7.100000e+00, 0.017473
8, 7.200000e+00, 0.035687
8, 7.300000e+00, 0.025032
8, 7.400000e+00, 0.013177
8, 7.500000e+00, 0.027966
8, 7.600000e+00, 0.048073
8, 7.700000e+00, 0.086793
8, 7.800000e+00, 0.011069
8, 7.900000e+00, 0.005781
8, 8, 0.001426
8, 8.100000e+00, 0.085139
8, 8.200000e+00, 0.024159
8, 8.300000e+00, 0.030117
8, 8.400000e+00, 0.090630
8, 8.500000e+00, 0.099176
8, 8.600000e+00, 0.090794
8, 8.700000e+00, 0.098409
8, 8.800000e+00, 0.074151
8, 8.900000e+00, 0.048901
8, 9, 0.054456
8, 9.100000e+00, 0.058626
8, 9.200000e+00, 0.090086
8, 9.300000e+00, 0.041008
8, 9.400000e+00, 0.080875
8, 9.500000e+00, 0.088760
8, 9.600000e+00, 0.071514
8, 9.700000e+00, 0.064276
8, 9.800000e+00, 0.005986
8, 9.900000e+00, 0.038726
8, 10, 0.004751
8.100000e+00, 1.000000e-01, 0.053289
8.100000e+00, 2.000000e-01, 0.065771
8.100000e+00, 3.000000e-01, 0.030989
8.100000e+00, 4.000000e-01, 0.050789
8.100000e+00, 5.000000e-01, 0.016120
8.100000e+00, 6.000000e-01, 0.056413
8.100000e+00, 7.000000e-01, 0.062165
8.100000e+00, 8.000000e-01, 0.018018
8.100000e+00, 9.000000e-01, 0.095977
8.100000e+00, 1, 0.090567
8.100000e+00, 1.100000e+00, 0.023498
8.100000e+00, 1.200000e+00, 0.003842
8.100000e+00, 1.300000e+00, 0.092026
8.100000e+00, 1.400000e+00, 0.069852
8.100000e+00, 1.500000e+00, 0.005455
8.100000e+00, 1.600000e+00, 0.054189
8.100000e+00, 1.700000e+00, 0.042542
8.100000e+00, 1.800000e+00, 0.030294
8.100000e+00, 1.900000e+00, 0.020678
8.100000e+00, 2, 0.011293
8.100000e+00, 2.100000e+00, 0.008301
8.100000e+00, 2.200000e+00, 0.025317
8.100000e+00, 2.300000e+00, 0.016154
8.100000e+00, 2.400000e+00, 0.032756
8.100000e+00, 2.500000e+00, 0.008703
8.100000e+00, 2.600000e+00, 0.027774
8.100000e+00, 2.700000e+00, 0.031170
8.100000e+00, 2.800000e+00, 0.077392
8.100000e+00, 2.900000e+00, 0.097464
8.100000e+00, 3, 0.020171
8.100000e+00, 3.100000e+00, 0.073908
8.100000e+00, 3.200000e+00, 0.091702
8.100000e+00, 3.300000e+00, 0.043389
8.100000e+00, 3.400000e+00, 0.007646
8.100000e+00, 3.500000e+00, 0.062516
8.100000e+00, 3.600000e+00, 0.013810
8.100000e+00, 3.700000e+00, 0.053802
8.100000e+00, 3.800000e+00, 0.064256
8.100000e+00, 3.900000e+00, 0.048153
8.100000e+00, 4, 0.099513
8.100000e+00, 4.100000e+00, 0.082399
8.100000e+00, 4.200000e+00, 0.017304
8.100000e+00, 4.300000e+00, 0.073480
8.100000e+00, 4.400000e+00, 0.058325
8.100000e+00, 4.500000e+00, 0.015320
8.100000e+00, 4.600000e+00, 0.054650
8.100000e+00, 4.700000e+00, 0.001367
8.100000e+00, 4.800000e+00, 0.099488
8.100000e+00, 4.900000e+00, 0.091777
8.100000e+00, 5, 0.015584
8.100000e+00, 5.100000e+00, 0.035745
8.100000e+00, 5.200000e+00, 0.049168
8.100000e+00, 5.300000e+00, 0.034403
8.100000e+00, 5.400000e+00, 0.053983
8.100000e+00, 5.500000e+00, 0.075138
8.100000e+00, 5.600000e+00, 0.077523
8.100000e+00, 5.700000e+00, 0.056126
8.100000e+00, 5.800000e+00, 0.041207
8.100000e+00, 5.900000e+00, 0.076190
8.100000e+00, 6, 0.027475
8.100000e+00, 6.100000e+00, 0.044233
8.100000e+00, 6.200000e+00, 0.006841
8.100000e+00, 6.300000e+00, 0.009353
8.100000e+00, 6.400000e+00, 0.045654
8.100000e+00, 6.500000e+00, 0.062858
8.100000e+00, 6.600000e+00, 0.086914
8.100000e+00, 6.700000e+00, 0.024037
8.100000e+00, 6.800000e+00, 0.017864
8.100000e+00, 6.900000e+00, 0.095825
8.100000e+00, 7, 0.000175
8.100000e+00, 7.100000e+00, 0.091674
8.100000e+00, 7.200000e+00, 0.025736
8.100000e+00, 7.300000e+00, 0.043245
8.100000e+00, 7.400000e+00, 0.071832
8.100000e+00, 7.500000e+00, 0.072512
8.100000e+00, 7.600000e+00, 0.076252
8.100000e+00, 7.700000e+00, 0.021862
8.100000e+00, 7.800000e+00, 0.005039
8.100000e+00, 7.900000e+00, 0.019056
8.100000e+00, 8, 0.075635
8.100000e+00, 8.100000e+00, 0.084704
8.100000e+00, 8.200000e+00, 0.042037
8.100000e+00, 8.300000e+00, 0.092827
8.100000e+00, 8.400000e+00, 0.098172
8.100000e+00, 8.500000e+00, 0.009473
8.100000e+00, 8.600000e+00, 0.048774
8.100000e+00, 8.700000e+00, 0.062273
8.100000e+00, 8.800000e+00, 0.052269
8.100000e+00, 8.900000e+00, 0.014270
8.100000e+00, 9, 0.041155
8.100000e+00, 9.100000e+00, 0.046022
8.100000e+00, 9.200000e+00, 0.068509
8.100000e+00, 9.300000e+00, 0.026263
8.100000e+00, 9.400000e+00, 0.063543
8.100000e+00, 9.500000e+00, 0.017467
8.100000e+00, 9.600000e+00, 0.072747
8.100000e+00, 9.700000e+00, 0.016835
8.100000e+00, 9.800000e+00, 0.090864
8.100000e+00, 9.900000e+00, 0.019214
8.100000e+00, 10, 0.026270
8.200000e+00, 1.000000e-01, 0.044197
8.200000e+00, 2.000000e-01, 0.048003
8.200000e+00, 3.000000e-01, 0.061493
8.200000e+00, 4.000000e-01, 0.038497
8.200000e+00, 5.000000e-01, 0.070160
8.200000e+00, 6.000000e-01, 0.056615
8.200000e+00, 7.000000e-01, 0.008365
8.200000e+00, 8.000000e-01, 0.047217
8.200000e+00, 9.000000e-01, 0.018837
8.200000e+00, 1, 0.016934
8.200000e+00, 1.100000e+00, 0.004589
8.200000e+00, 1.200000e+00, 0.014081
8.200000e+00, 1.300000e+00, 0.049695
8.200000e+00, 1.400000e+00, 0.098806
8.200000e+00, 1.500000e+00, 0.043923
8.200000e+00, 1.600000e+00, 0.086874
8.200000e+00, 1.700000e+00, 0.065239
8.200000e+00, 1.800000e+00, 0.005395
8.200000e+00, 1.900000e+00, 0.078460
8.200000e+00, 2, 0.018633
8.200000e+00, 2.100000e+00, 0.055954
8.200000e+00, 2.200000e+00, 0.060641
8.200000e+00, 2.300000e+00, 0.017475
8.200000e+00, 2.400000e+00, 0.049664
8.200000e+00, 2.500000e+00, 0.077090
8.200000e+00, 2.600000e+00, 0.069398
8.200000e+00, 2.700000e+00, 0.035689
8.200000e+00, 2.800000e+00, 0.070263
8.200000e+00, 2.900000e+00, 0.027362
8.200000e+00, 3, 0.084412
8.200000e+00, 3.100000e+00, 0.039984
8.200000e+00, 3.200000e+00, 0.098913
8.200000e+00, 3.300000e+00, 0.017159
8.200000e+00, 3.400000e+00, 0.026685
8.200000e+00, 3.500000e+00, 0.008216
8.200000e+00, 3.600000e+00, 0.072029
8.200000e+00, 3.700000e+00, 0.074402
8.200000e+00, 3.800000e+00, 0.015436
8.200000e+00, 3.900000e+00, 0.071356
8.200000e+00, 4, 0.093533
8.200000e+00, 4.100000e+00, 0.014700
8.200000e+00, 4.200000e+00, 0.081747
8.200000e+00, 4.300000e+00, 0.079108
8.200000e+00, 4.400000e+00, 0.077713
8.200000e+00, 4.500000e+00, 0.065036
8.200000e+00, 4.600000e+00, 0.016553
8.200000e+00, 4.700000e+00, 0.013739
8.200000e+00, 4.800000e+00, 0.034850
8.200000e+00, 4.900000e+00, 0.002969
8.200000e+00, 5, 0.039083
8.200000e+00, 5.100000e+00, 0.022612
8.200000e+00, 5.200000e+00, 0.095401
8.200000e+00, 5.300000e+00, 0.094623
8.200000e+00, 5.400000e+00, 0.058601
8.200000e+00, 5.500000e+00, 0.027859
8.200000e+00, 5.600000e+00, 0.008643
8.200000e+00, 5.700000e+00, 0.051715
8.200000e+00, 5.800000e+00, 0.018888
8.200000e+00, 5.900000e+00, 0.098738
8.200000e+00, 6, 0.050416
8.200000e+00, 6.100000e+00, 0.012811
8.200000e+00, 6.200000e+00, 0.093805
8.200000e+00, 6.300000e+00, 0.010228
8.200000e+00, 6.400000e+00, 0.008149
8.200000e+00, 6.500000e+00, 0.052956
8.200000e+00, 6.600000e+00, 0.024697
8.200000e+00, 6.700000e+00, 0.052373
8.200000e+00, 6.800000e+00, 0.065373
8.200000e+00, 6.900000e+00, 0.004136
8.200000e+00, 7, 0.053226
8.200000e+00, 7.100000e+00, 0.063205
8.200000e+00, 7.200000e+00, 0.070630
8.200000e+00, 7.300000e+00, 0.050627
8.200000e+00, 7.400000e+00, 0.028337
8.200000e+00, 7.500000e+00, 0.031096
8.200000e+00, 7.600000e+00, 0.055577
8.200000e+00, 7.700000e+00, 0.023144
8.200000e+00, 7.800000e+00, 0.087907
8.200000e+00, 7.900000e+00, 0.016855
8.200000e+00, 8, 0.024593
8.200000e+00, 8.100000e+00, 0.029702
8.200000e+00, 8.200000e+00, 0.025036
8.200000e+00, 8.300000e+00, 0.023826
8.200000e+00, 8.400000e+00, 0.086411
8.200000e+00, 8.500000e+00, 0.016467
8.200000e+00, 8.600000e+00, 0.002392
8.200000e+00, 8.700000e+00, 0.033937
8.200000e+00, 8.800000e+00, 0.047709
8.200000e+00, 8.900000e+00, 0.096545
8.200000e+00, 9, 0.034378
8.200000e+00, 9.100000e+00, 0.051387
8.200000e+00, 9.200000e+00, 0.050886
8.200000e+00, 9.300000e+00, 0.058729
8.200000e+00, 9.400000e+00, 0.013862
8.200000e+00, 9.500000e+00, 0.071602
8.200000e+00, 9.600000e+00, 0.025678
8.200000e+00, 9.700000e+00, 0.021017
8.200000e+00, 9.800000e+00, 0.052990
8.200000e+00, 9.900000e+00, 0.043572
8.200000e+00, 10, 0.065680
8.300000e+00, 1.000000e-01, 0.060468
8.300000e+00, 2.000000e-01, 0.088942
8.300000e+00, 3.000000e-01, 0.045189
8.300000e+00, 4.000000e-01, 0.044676
8.300000e+00, 5.000000e-01, 0.096310
8.300000e+00, 6.000000e-01, 0.048710
8.300000e+00, 7.000000e-01, 0.078988
8.300000e+00, 8.000000e-01, 0.083422
8.300000e+00, 9.000000e-01, 0.060428
8.300000e+00, 1, 0.085614
8.300000e+00, 1.100000e+00, 0.024056
8.300000e+00, 1.200000e+00, 0.045869
8.300000e+00, 1.300000e+00, 0.023504
8.300000e+00, 1.400000e+00, 0.055953
8.300000e+00, 1.500000e+00, 0.055222
8.300000e+00, 1.600000e+00, 0.042890
8.300000e+00, 1.700000e+00, 0.017649
8.300000e+00, 1.800000e+00, 0.088042
8.300000e+00, 1.900000e+00, 0.038219
8.300000e+00, 2, 0.061217
8.300000e+00, 2.100000e+00, 0.095685
8.300000e+00, 2.200000e+00, 0.053967
8.300000e+00, 2.300000e+00, 0.017024
8.300000e+00, 2.400000e+00, 0.078240
8.300000e+00, 2.500000e+00, 0.080860
8.300000e+00, 2.600000e+00, 0.033733
8.300000e+00, 2.700000e+00, 0.032393
8.300000e+00, 2.800000e+00, 0.077446
8.300000e+00, 2.900000e+00, 0.099402
8.300000e+00, 3, 0.046530
8.300000e+00, 3.100000e+00, 0.037841
8.300000e+00, 3.200000e+00, 0.065224
8.300000e+00, 3.300000e+00, 0.056665
8.300000e+00, 3.400000e+00, 0.012513
8.300000e+00, 3.500000e+00, 0.041409
8.300000e+00, 3.600000e+00, 0.097549
8.300000e+00, 3.700000e+00, 0.017421
8.300000e+00, 3.800000e+00, 0.099144
8.300000e+00, 3.900000e+00, 0.080749
8.300000e+00, 4, 0.072414
8.300000e+00, 4.100000e+00, 0.028079
8.300000e+00, 4.200000e+00, 0.026031
8.300000e+00, 4.300000e+00, 0.046192
8.300000e+00, 4.400000e+00, 0.038572
8.300000e+00, 4.500000e+00, 0.033010
8.300000e+00, 4.600000e+00, 0.006064
8.300000e+00, 4.700000e+00, 0.035966
8.300000e+00, 4.800000e+00, 0.044072
8.300000e+00, 4.900000e+00, 0.077967
8.300000e+00, 5, 0.099862
8.300000e+00, 5.100000e+00, 0.078441
8.300000e+00, 5.200000e+00, 0.039073
8.300000e+00, 5.300000e+00, 0.074904
8.300000e+00, 5.400000e+00, 0.011296
8.300000e+00, 5.500000e+00, 0.084096
8.300000e+00, 5.600000e+00, 0.038403
8.300000e+00, 5.700000e+00, 0.097190
8.300000e+00, 5.800000e+00, 0.069782
8.300000e+00, 5.900000e+00, 0.061302
8.300000e+00, 6, 0.039479
8.300000e+00, 6.100000e+00, 0.028258
8.300000e+00, 6.200000e+00, 0.018593
8.300000e+00, 6.300000e+00, 0.075604
8.300000e+00, 6.400000e+00, 0.010759
8.300000e+00, 6.500000e+00, 0.041953
8.300000e+00, 6.600000e+00, 0.022538
8.300000e+00, 6.700000e+00, 0.041859
8.300000e+00, 6.800000e+00, 0.018958
8.300000e+00, 6.900000e+00, 0.021226
8.300000e+00, 7, 0.054051
8.300000e+00, 7.100000e+00, 0.037453
8.300000e+00, 7.200000e+00, 0.076566
8.300000e+00, 7.300000e+00, 0.005421
8.300000e+00, 7.400000e+00, 0.069139
8.300000e+00, 7.500000e+00, 0.020806
8.300000e+00, 7.600000e+00, 0.038629
8.300000e+00, 7.700000e+00, 0.056655
8.300000e+00, 7.800000e+00, 0.054417
8.300000e+00, 7.900000e+00, 0.045456
8.300000e+00, 8, 0.058643
8.300000e+00, 8.100000e+00, 0.090958
8.300000e+00, 8.200000e+00, 0.023563
8.300000e+00, 8.300000e+00, 0.025895
8.300000e+00, 8.400000e+00, 0.090499
8.300000e+00, 8.500000e+00, 0.077987
8.300000e+00, 8.600000e+00, 0.036764
8.300000e+00, 8.700000e+00, 0.084653
8.300000e+00, 8.800000e+00, 0.048687
8.300000e+00, 8.900000e+00, 0.088666
8.300000e+00, 9, 0.074802
8.300000e+00, 9.100000e+00, 0.036028
8.300000e+00, 9.200000e+00, 0.003464
8.300000e+00, 9.300000e+00, 0.018266
8.300000e+00, 9.400000e+00, 0.056442
8.300000e+00, 9.500000e+00, 0.036520
8.300000e+00, 9.600000e+00, 0.015063
8.300000e+00, 9.700000e+00, 0.040029
8.300000e+00, 9.800000e+00, 0.041830
8.300000e+00, 9.900000e+00, 0.024830
8.300000e+00, 10, 0.041641
8.400000e+00, 1.000000e-01, 0.097804
8.400000e+00, 2.000000e-01, 0.008831
8.400000e+00, 3.000000e-01, 0.060382
8.400000e+00, 4.000000e-01, 0.012583
8.400000e+00, 5.000000e-01, 0.084892
8.400000e+00, 6.000000e-01, 0.037756
8.400000e+00, 7.000000e-01, 0.001881
8.400000e+00, 8.000000e-01, 0.085499
8.400000e+00, 9.000000e-01, 0.088298
8.400000e+00, 1, 0.022471
8.400000e+00, 1.100000e+00, 0.039432
8.400000e+00, 1.200000e+00, 0.017655
8.400000e+00, 1.300000e+00, 0.022433
8.400000e+00, 1.400000e+00, 0.041040
8.400000e+00, 1.500000e+00, 0.003059
8.400000e+00, 1.600000e+00, 0.002210
8.400000e+00, 1.700000e+00, 0.092108
8.400000e+00, 1.800000e+00, 0.061441
8.400000e+00, 1.900000e+00, 0.023515
8.400000e+00, 2, 0.098578
8.400000e+00, 2.100000e+00, 0.094353
8.400000e+00, 2.200000e+00, 0.056890
8.400000e+00, 2.300000e+00, 0.037663
8.400000e+00, 2.400000e+00, 0.033222
8.400000e+00, 2.500000e+00, 0.048087
8.400000e+00, 2.600000e+00, 0.065409
8.400000e+00, 2.700000e+00, 0.027802
8.400000e+00, 2.800000e+00, 0.000386
8.400000e+00, 2.900000e+00, 0.097396
8.400000e+00, 3, 0.095960
8.400000e+00, 3.100000e+00, 0.031939
8.400000e+00, 3.200000e+00, 0.028176
8.400000e+00, 3.300000e+00, 0.095351
8.400000e+00, 3.400000e+00, 0.038328
8.400000e+00, 3.500000e+00, 0.011601
8.400000e+00, 3.600000e+00, 0.010115
8.400000e+00, 3.700000e+00, 0.073524
8.400000e+00, 3.800000e+00, 0.024863
8.400000e+00, 3.900000e+00, 0.091780
8.400000e+00, 4, 0.094093
8.400000e+00, 4.100000e+00, 0.073062
8.400000e+00, 4.200000e+00, 0.000627
8.400000e+00, 4.300000e+00, 0.027157
8.400000e+00, 4.400000e+00, 0.000470
8.400000e+00, 4.500000e+00, 0.006973
8.400000e+00, 4.600000e+00, 0.014063
8.400000e+00, 4.700000e+00, 0.013130
8.400000e+00, 4.800000e+00, 0.068603
8.400000e+00, 4.900000e+00, 0.017488
8.400000e+00, 5, 0.018188
8.400000e+00, 5.100000e+00, 0.038890
8.400000e+00, 5.200000e+00, 0.029990
8.400000e+00, 5.300000e+00, 0.091600
8.400000e+00, 5.400000e+00, 0.094802
8.400000e+00, 5.500000e+00, 0.077839
8.400000e+00, 5.600000e+00, 0.048187
8.400000e+00, 5.700000e+00, 0.022229
8.400000e+00, 5.800000e+00, 0.070336
8.400000e+00, 5.900000e+00, 0.013938
8.400000e+00, 6, 0.010631
8.400000e+00, 6.100000e+00, 0.057369
8.400000e+00, 6.200000e+00, 0.098296
8.400000e+00, 6.300000e+00, 0.017156
8.400000e+00, 6.400000e+00, 0.098211
8.400000e+00, 6.500000e+00, 0.067099
